116.86  -110.483  390.491  0.0290656  0.788222  -0.614704
81.8599  -47.5503  414.168  0.576005  0.255024  -0.776648
115.86  -110.435  390.491  0.120395  0.824948  -0.552237
81.8599  -48.5503  413.821  0.57149  0.264894  -0.776679
105.86  45.4497  384.229  0.723274  0.23102  0.650771
106.151  46.4497  383.491  0.691449  0.468741  0.549709
155.86  -189.55  341.304  0.504704  0.197319  -0.84044
155.86  -190.55  341.182  0.516667  0.013313  -0.856083
101.86  -129.463  362.491  -0.27064  -0.770147  0.577605
154.755  -189.55  340.491  0.675582  0.218883  -0.704045
101.86  -128.738  363.491  -0.265199  -0.786024  0.558423
154.704  -190.55  340.491  0.681706  -0.00770817  -0.731586
153.86  -189.55  339.704  0.541367  0.314674  -0.779681
102.86  -129.103  363.491  -0.27491  -0.770985  0.574462
86.8599  -122.55  396.24  -0.397688  0.452633  -0.798102
114.86  -110.806  389.491  0.237292  0.855814  -0.459646
70.8599  -19.5503  388.594  -0.372218  0.21841  -0.902081
83.8599  -78.5503  405.358  0.599133  0.270279  -0.75365
70.8599  -20.5503  388.41  -0.453706  0.237273  -0.858983
70.4175  -21.5503  388.491  -0.766553  -0.10838  -0.63297
150.86  -189.55  337.68  0.586073  0.399289  -0.705044
70.8335  -22.5503  388.491  -0.609428  -0.698541  -0.375017
101.86  -128.052  364.491  -0.24888  -0.793715  0.555046
72.8599  -19.6038  389.491  0.652825  0.423827  -0.627846
84.8599  -77.5503  406.52  0.573403  0.270476  -0.773338
152.86  -187.55  339.944  0.428427  0.344597  -0.835286
70.8599  -20.5503  391.371  -0.570074  -0.317118  0.757926
69.8652  -20.5503  390.491  -0.831513  -0.307538  0.462608
152.86  -188.55  339.529  0.459943  0.326924  -0.825574
115.86  -143.462  365.491  0.101045  -0.875316  -0.472876
69.3452  -19.5503  390.491  -0.907991  -0.29601  0.296532
116.86  -143.067  365.491  0.404998  -0.875027  -0.265151
69.3789  -19.5503  389.491  -0.829077  0.0180487  -0.558843
150.517  -187.55  338.491  0.631758  0.310379  -0.710315
69.5684  -20.5503  389.491  -0.930131  -0.164731  -0.328206
115.86  -143.954  366.491  0.16112  -0.885834  -0.435131
116.86  -143.432  366.491  0.436768  -0.841997  -0.316662
70.8599  -21.5503  391.446  -0.630794  -0.293459  0.718318
149.86  -187.55  337.764  0.566137  0.343122  -0.749504
150.86  -188.55  338.436  0.592651  0.378603  -0.710933
70.0801  -21.5503  390.491  -0.833712  -0.424378  0.35331
81.2344  22.4497  435.491  0.778845  0.198361  0.595024
70.8599  -22.5503  390.617  -0.482386  -0.789273  0.379936
69.8506  -21.5503  389.491  -0.91996  -0.391393  -0.0220236
46.793  -29.5503  420.491  -0.632951  -0.39543  -0.665588
47.7505  -29.5503  419.491  -0.569694  -0.523584  -0.633489
111.86  40.9419  383.491  -0.333732  0.915639  0.224117
49.8599  -30.8545  424.491  0.305887  -0.889952  0.338258
152.86  -189.55  339.144  0.45644  0.315034  -0.832115
151.86  -189.55  338.587  0.538791  0.366494  -0.758542
49.8599  -30.9092  423.491  0.310099  -0.93979  -0.143641
152.86  -190.55  338.798  0.50548  0.122812  -0.854053
74.8599  -16.6772  386.491  0.17486  -0.979958  0.0954307
112.86  41.2402  383.491  -0.115628  0.948435  0.29513
73.8599  -16.8459  386.491  0.193695  -0.98082  0.0217953
111.86  40.7026  384.491  -0.196172  0.968717  0.152
151.86  -190.55  338.152  0.619009  0.0953543  -0.779574
151.86  -187.55  339.457  0.463544  0.342245  -0.81731
74.8599  -16.7998  385.491  0.114147  -0.986226  0.1197
151.86  -188.55  339.048  0.469222  0.333548  -0.817665
73.8599  -16.8894  385.491  0.0502814  -0.998689  -0.00959825
74.8599  -22.1992  390.491  0.28176  -0.959082  -0.0278086
165.86  -189.55  349.027  0.531786  0.225977  -0.816173
166.86  -190.55  349.132  0.43694  0.504126  -0.744943
73.8599  -22.4739  390.491  0.253195  -0.95938  0.124424
75.5435  -21.5503  389.491  0.69843  -0.498444  -0.513565
112.86  40.8262  384.491  0.359706  0.827904  0.430332
74.8599  -22.0544  389.491  0.445641  -0.849032  -0.28381
29.8599  -7.55029  387.279  -0.0971333  -0.162885  -0.981852
121.86  -154.715  340.491  0.479204  0.573984  -0.664007
165.86  -190.55  348.481  0.48091  0.466884  -0.742122
122.86  -155.55  340.622  0.49901  0.58375  -0.640488
160.86  -191.55  344.662  0.514755  0.405292  -0.755491
113.86  41.127  383.491  0.595679  0.56143  0.574424
118.86  21.4497  357.858  0.417613  0.135492  -0.898466
80.6685  21.4497  436.491  0.761575  0.200564  0.616261
87.8599  37.4497  349.143  -0.358853  0.152956  -0.920776
88.8599  37.4497  348.893  -0.123581  0.248912  -0.960609
87.8599  38.4497  349.35  -0.266509  0.219552  -0.938493
88.8599  38.4497  349.189  -0.0614896  0.313222  -0.947687
119.86  -154.55  339.613  0.31445  0.546186  -0.776403
25.1035  -23.5503  394.491  0.9289  -0.00883859  -0.370225
49.8599  -30.5544  422.491  0.266561  -0.927597  -0.261743
48.8599  -31.3464  424.491  0.427591  -0.90314  0.0387886
47.8599  -31.7634  424.491  0.335064  -0.91324  -0.231787
48.8599  -31.1597  423.491  0.256738  -0.932789  -0.252962
90.8599  38.4497  349.719  0.384679  0.483585  -0.786236
89.8599  37.4497  348.88  0.0782852  0.331366  -0.940249
90.8599  37.4497  349.134  0.301986  0.420277  -0.85567
89.8599  38.4497  349.322  0.198837  0.41672  -0.887022
47.8599  -31.4636  423.491  0.301735  -0.916008  -0.264358
79.8599  39.4497  357.877  -0.645949  -0.171328  -0.743907
79.8799  40.4497  357.491  -0.659085  -0.267732  -0.702799
48.8599  -30.8311  422.491  0.283496  -0.929084  -0.237557
47.8599  -31.1707  422.491  0.27835  -0.930021  -0.239962
80.396  22.4497  436.491  0.781719  0.200613  0.590482
48.8599  -30.6658  421.491  0.261151  -0.936102  -0.235614
159.86  -191.55  344.022  0.497272  0.377522  -0.781151
160.86  -192.55  344.032  0.489951  0.464742  -0.737538
47.8599  -30.9092  421.491  0.128933  -0.918555  -0.373676
94.7427  10.4497  428.491  0.769773  0.156426  0.618854
79.8599  22.4497  437.329  0.804048  0.18008  0.566638
91.8599  37.4497  349.662  0.417918  0.462003  -0.782239
92.8599  37.4497  350.195  0.432316  0.467032  -0.771352
91.8599  38.4497  350.269  0.416849  0.486775  -0.767651
75.8599  -21.8269  390.491  0.635392  -0.725097  -0.26554
120.86  -154.55  340.036  0.360205  0.527991  -0.769076
119.86  -153.55  340.346  0.389281  0.573477  -0.720822
94.9644  9.44971  428.491  0.789003  0.202071  0.580208
92.8599  38.4497  350.824  0.433033  0.480726  -0.762486
79.897  21.4497  437.491  0.80505  0.174434  0.566981
160.86  -193.55  342.98  0.207259  0.527  -0.824205
120.86  -153.848  340.491  0.373075  0.691911  -0.618122
159.86  -193.55  342.729  0.357542  0.491938  -0.793827
95.5078  10.4497  427.491  0.775922  0.196518  0.599437
30.8599  -8.55029  387.449  -0.0751332  0.0420149  -0.996288
95.7583  9.44971  427.491  0.764511  0.180233  0.618902
101.86  15.4497  347.719  0.582296  0.128558  -0.802748
114.86  -110.24  390.491  0.218944  0.854576  -0.470918
101.86  16.4497  347.877  0.576517  0.135585  -0.805757
113.86  -109.988  390.491  0.247696  0.859442  -0.44722
73.8599  -16.856  388.491  0.299442  -0.951794  -0.066497
117.86  51.7993  357.491  -0.590707  0.805258  -0.0512382
74.8599  -16.5503  387.491  0.228536  -0.970824  0.0726037
118.86  52.4502  357.491  -0.464187  0.878417  0.113642
73.8599  -16.8442  387.491  0.254724  -0.966715  0.024031
117.86  51.731  358.491  -0.565032  0.814603  0.131001
118.86  52.2427  358.491  -0.432895  0.884793  0.172462
72.8599  -17.0913  388.491  0.245427  -0.964908  -0.0933763
71.8599  -17.3354  388.491  0.219628  -0.794897  -0.565598
72.8599  -17.1458  387.491  0.243389  -0.969921  0.00399888
29.8599  -8.55029  387.482  -0.0764207  0.0210284  -0.996854
113.86  -110.403  389.491  0.252113  0.837963  -0.484001
88.8599  45.4497  403.189  -0.227794  -0.0590465  0.971917
71.8599  -17.3516  387.491  0.0162077  -0.992498  -0.121178
113.847  36.4497  388.491  0.87379  0.247891  0.418379
93.9385  10.4497  429.491  0.787747  0.186716  0.58702
111.86  -109.307  390.491  0.188673  0.833881  -0.518696
75.8599  -20.106  390.491  0.572634  0.644955  -0.506086
114.387  35.4497  387.491  0.924583  0.372869  -0.0781952
112.86  -109.594  390.491  0.243181  0.858595  -0.451307
75.8599  -20.5503  389.661  0.803712  0.243447  -0.542937
114.037  36.4497  387.491  0.943356  0.324302  -0.0700567
71.8599  -19.5503  388.503  0.142819  0.368417  -0.918625
112.86  -110.088  389.491  0.139851  0.82064  -0.554069
72.8599  -20.1196  388.491  0.546996  0.715537  -0.434514
111.86  -110.063  389.491  0.109406  0.804276  -0.584098
110.86  -109.207  390.491  0.124831  0.824777  -0.551508
71.8599  -20.5503  387.927  -0.419228  0.457492  -0.784187
109.86  -109.075  390.491  0.119646  0.826258  -0.550439
114.141  35.4497  388.491  0.865796  0.261393  0.426697
74.8599  -21.5503  388.82  0.584166  -0.191225  -0.788785
113.665  37.4497  387.491  0.95594  0.291218  -0.0370177
110.86  -109.896  389.491  0.149587  0.812337  -0.563678
109.86  -109.727  389.491  0.172577  0.848547  -0.500185
146.86  -195.55  333.071  0.415444  0.525533  -0.742443
145.86  -195.55  332.496  0.441831  0.521299  -0.730091
73.8599  -21.5503  388.098  0.707647  0.261519  -0.656386
113.395  38.4497  387.491  0.96273  0.267432  0.0403948
113.553  37.4497  388.491  0.898297  0.257938  0.355712
73.7588  -22.5503  388.491  0.634585  -0.617177  -0.465182
72.8599  -20.6633  387.491  0.291581  0.560634  -0.775029
113.273  38.4497  388.491  0.905496  0.319111  0.279724
146.86  -196.55  332.279  0.429667  0.528099  -0.73246
73.3906  -21.5503  387.491  0.550558  -0.086197  -0.830335
102.89  15.4497  348.491  0.578473  0.132854  -0.80481
145.86  -196.55  331.703  0.461351  0.462011  -0.75743
75.2754  -79.5503  409.491  -0.913892  -0.296301  -0.277502
147.86  -196.55  333.007  0.531235  0.431751  -0.728958
71.8599  -21.5503  387.152  -0.178559  0.155695  -0.971533
109.86  22.4497  354.583  0.492305  0.331069  -0.805002
113.532  35.4497  385.491  0.878623  0.425268  -0.217183
110.86  -110.621  388.491  0.258008  0.822652  -0.506632
110.86  -111.248  387.491  0.315472  0.845281  -0.431252
79.8599  -45.5503  413.444  0.544403  0.282948  -0.789662
109.86  -110.733  387.491  0.322315  0.824877  -0.464426
79.8599  -46.5503  413.075  0.54826  0.27602  -0.789445
113.185  36.4497  385.491  0.994118  0.0855144  -0.0664568
38.8599  -31.5503  430.235  -0.10778  -0.00278993  -0.994171
154.657  -191.55  340.491  0.641499  0.121127  -0.757501
113.708  36.4497  386.491  0.892184  0.28096  -0.353651
114.02  35.4497  386.491  0.863055  0.385628  -0.326231
153.86  -191.55  339.567  0.680488  -0.0193409  -0.732504
39.7051  -31.5503  429.491  -0.684661  -0.0869592  -0.723655
113.372  37.4497  385.491  0.993013  -0.11778  -0.00729344
154.86  -192.55  340.182  0.506795  0.446236  -0.737586
38.8599  -32.5503  430.194  -0.0231276  -0.0648953  -0.997624
113.605  38.4497  385.491  0.990847  0.104938  0.0849126
40.8599  -33.5503  429.139  -0.517761  -0.51491  -0.683221
37.811  -31.5503  429.491  0.73058  0.000244615  -0.682827
113.442  37.4497  386.491  0.986395  0.0703194  -0.148596
37.8086  -32.5503  429.491  0.725266  -0.0341282  -0.687622
155.86  -191.55  341.269  0.527426  0.146932  -0.836799
37.6589  -36.5503  430.491  0.900299  -0.159738  -0.404903
156.86  -192.55  341.432  0.48545  0.457522  -0.744991
37.3801  -35.5503  429.491  0.913578  -0.0609638  -0.402069
155.86  -192.55  340.827  0.473406  0.452952  -0.755461
109.86  1.78223  399.491  0.40976  -0.882341  -0.231456
110.86  2.13477  399.491  0.390999  -0.89042  -0.232964
37.2646  -36.5503  429.491  0.924493  -0.133042  -0.357229
109.86  1.55566  400.491  0.444173  -0.875469  -0.190432
80.8599  -45.5503  414.102  0.541259  0.272326  -0.795536
110.86  1.89453  400.491  0.456151  -0.882255  -0.116417
111.646  2.44971  400.491  0.771365  -0.614133  0.166846
111.86  2.71191  399.491  0.522705  -0.84472  -0.115011
80.8599  -46.5503  413.771  0.548605  0.265106  -0.792939
51.5654  -33.5503  426.491  -0.981926  -0.153076  -0.111305
52.8599  -33.5503  428.124  -0.460465  -0.065353  0.885269
109.86  2.17432  397.491  0.298774  -0.941077  -0.158455
94.0815  9.44971  429.491  0.799658  0.224401  0.556948
110.86  2.54297  397.491  0.304939  -0.951827  0.0322221
52.8599  -34.5503  428.113  -0.268457  -0.0474918  0.96212
109.86  2.00342  398.491  0.390401  -0.903402  -0.177347
110.86  2.43701  398.491  0.392435  -0.902898  -0.175417
51.8599  -34.5503  427.696  -0.721202  -0.107158  0.684386
111.86  2.89502  397.491  0.438969  -0.89166  0.11067
112.86  3.43018  397.491  0.605472  -0.792655  0.0714274
111.86  2.85693  398.491  0.424281  -0.902037  -0.0794694
112.86  3.39453  398.491  0.761781  -0.637744  0.113895
157.86  -193.55  341.252  0.473627  0.544981  -0.691862
52.8599  -35.5503  428.036  -0.545028  -0.1227  0.829391
156.86  -193.55  340.663  0.427753  0.549764  -0.717487
92.8599  10.4497  431.115  0.827298  0.211127  0.52058
113.457  38.4497  386.491  0.986107  0.144007  0.0827951
52.8599  -36.5503  427.928  -0.355644  -0.0781508  0.931348
113.651  35.4497  384.491  0.856529  0.498578  0.133335
52.1602  -36.5503  427.491  -0.88509  -0.11342  0.45139
87.8599  45.4497  403.689  0.622617  0.128901  0.771837
54.8599  -33.5503  428.912  -0.519094  -0.197525  0.83158
155.86  -193.55  340.067  0.440315  0.543274  -0.714825
89.1318  46.4497  403.491  -0.614521  -0.137543  0.776818
54.8599  -34.5503  428.667  -0.468363  -0.179178  0.865177
89.6001  46.4497  404.491  -0.529984  -0.0118625  0.847925
53.8599  -33.5503  428.355  -0.318402  -0.101632  0.942492
53.8599  -34.5503  428.292  -0.241072  -0.0743514  0.967655
52.4434  -33.5503  425.491  -0.690042  -0.0916176  -0.717948
93.0771  10.4497  430.491  0.821867  0.235499  0.518724
61.8599  -18.5503  441.778  0.241708  0.323417  0.914865
156.86  -191.55  341.915  0.597085  0.127671  -0.791953
61.3345  97.4497  411.491  0.814461  0.131524  0.565115
52.5918  -34.5503  425.491  -0.723307  -0.12284  -0.679512
82.8599  -45.5503  415.58  0.570648  0.270927  -0.775216
81.8599  -45.5503  414.814  0.569634  0.269913  -0.776314
61.1978  98.4497  411.491  0.809725  0.133156  0.571503
82.8599  -46.5503  415.179  0.575699  0.243986  -0.780411
60.6289  97.4497  412.491  0.810485  0.136556  0.569619
81.8599  -46.5503  414.46  0.566114  0.251644  -0.784977
60.4624  98.4497  412.491  0.820078  0.144299  0.55376
102.86  16.4497  348.627  0.576069  0.132023  -0.806669
59.9468  97.4497  413.491  0.844432  0.121425  0.521718
93.5957  9.44971  430.491  0.794985  0.240477  0.55693
35.8599  8.44971  360.187  -0.069458  -0.33938  -0.938082
58.6353  -35.5503  423.491  -0.826326  0.278896  -0.489288
36.8599  8.44971  360.124  -0.0799607  -0.332064  -0.939862
56.8599  -35.5503  424.064  -0.0399926  0.298141  -0.953684
158.86  -193.55  342.183  0.499848  0.436228  -0.748236
55.8599  -35.5503  423.913  -0.0218625  0.0621837  -0.997825
73.7666  56.4497  360.491  -0.732062  -0.112507  -0.671884
73.3242  55.4497  361.491  -0.793471  -0.208812  -0.571665
56.8599  -36.5503  423.837  -0.167933  0.349053  -0.921933
73.0645  56.4497  361.491  -0.785873  -0.195145  -0.58679
55.8599  -36.5503  423.864  -0.119869  0.117605  -0.985799
53.8599  -36.5503  424.584  -0.647716  -0.177147  -0.741002
72.5869  55.4497  362.491  -0.79105  -0.19706  -0.579143
72.3413  56.4497  362.491  -0.796783  -0.207408  -0.567555
54.8599  -35.5503  424.04  -0.178214  -0.0057567  -0.983975
21.8599  59.5347  369.491  0.355588  -0.929038  0.102205
22.8599  59.6826  369.491  0.101758  -0.965967  0.237807
21.8599  59.4814  370.491  0.615911  -0.764907  -0.188605
53.8599  -35.5503  424.35  -0.512251  -0.108588  -0.851943
22.8599  59.8682  370.491  0.188954  -0.97933  0.0721723
23.8599  59.6592  369.491  0.0134769  -0.94933  0.313993
24.8599  59.645  369.491  0.0382132  -0.943873  0.32809
23.8599  60.0278  370.491  0.0988076  -0.986722  0.128902
24.8599  60.0581  370.491  0.00470033  -0.998425  0.0559139
54.8599  -36.5503  424.089  -0.331112  -0.0453373  -0.942501
74.8599  56.4497  359.425  -0.558392  0.113286  -0.821806
74.7915  55.4497  359.491  -0.691578  -0.0158386  -0.722128
54.8599  -35.5503  428.46  -0.331088  -0.113138  0.936792
53.8599  -35.5503  428.268  -0.219508  -0.0522638  0.97421
54.8599  -36.5503  428.366  -0.250309  -0.108848  0.962028
74.0425  55.4497  360.491  -0.775911  -0.173937  -0.606389
53.8599  -36.5503  428.222  -0.220133  -0.0583012  0.973726
51.8994  -35.5503  426.491  -0.939142  -0.305496  -0.157116
76.8599  55.4497  358.268  -0.275892  0.381109  -0.882406
52.2036  -36.5503  426.491  -0.951654  -0.144035  -0.271311
75.8599  55.4497  358.684  -0.438727  0.250527  -0.862992
52.8125  -35.5503  425.491  -0.730162  -0.180811  -0.658917
75.8599  56.4497  358.971  -0.324114  0.298032  -0.897846
76.8599  56.4497  358.782  -0.129117  0.441633  -0.887856
53.0752  -36.5503  425.491  -0.743554  -0.194655  -0.639716
35.8599  7.44971  360.729  -0.0352606  -0.692862  -0.720208
57.8599  -36.9658  423.491  -0.516703  0.548267  -0.657588
36.8599  7.61768  360.491  -0.0485411  -0.677601  -0.733826
159.86  -192.55  343.368  0.420028  0.489372  -0.764259
158.86  -191.55  343.387  0.531805  0.342269  -0.77462
57.749  -38.5503  420.491  -0.872927  0.0701073  -0.482786
68.8599  11.7866  364.491  -0.00657389  0.96583  -0.259095
67.8599  11.8071  364.491  0.00881088  0.971388  -0.237333
157.86  -191.55  342.684  0.557301  0.287937  -0.778786
158.86  -192.55  342.766  0.4798  0.474025  -0.738304
157.86  -192.55  342.107  0.474234  0.518438  -0.711564
38.8599  7.44971  360.475  -0.0640506  -0.716586  -0.694551
68.8599  11.522  363.491  0.00860173  0.971639  -0.236313
102.86  -128.379  364.491  -0.250256  -0.784876  0.566869
67.8599  11.5493  363.491  0.000761632  0.96764  -0.252335
27.8599  34.563  375.491  -0.0712467  0.92778  -0.366264
56.8599  -37.5503  423.206  -0.415664  0.611199  -0.673542
28.8599  34.688  375.491  -0.105555  0.916527  -0.385792
81.7593  -23.5503  419.491  0.756281  0.157002  0.635129
55.8599  -38.5503  423.142  -0.574461  0.298567  -0.762137
80.8599  -24.5503  420.834  0.786466  0.190925  0.587383
56.6064  -38.5503  422.491  -0.728815  0.35091  -0.587955
57.2153  -38.5503  421.491  -0.857639  0.16633  -0.486611
80.8599  -23.5503  420.544  0.789258  0.158826  0.593167
55.8599  -37.5503  423.683  -0.366535  0.317138  -0.874686
56.8599  -39.5503  428.492  -0.501681  -0.245794  0.829398
81.8599  -24.5503  419.594  0.760678  0.174562  0.625218
55.8599  -39.5503  427.926  -0.23773  -0.156223  0.958686
83.8599  -77.5503  405.733  0.594968  0.264579  -0.758954
56.8599  -40.5503  428.215  -0.389904  -0.157581  0.907273
37.8599  8.44971  359.997  -0.0883554  -0.355535  -0.930477
55.8599  -40.5503  427.876  -0.21364  -0.0348737  0.97629
38.8599  8.44971  359.906  -0.117654  -0.343301  -0.931827
37.8599  7.53125  360.491  -0.0744292  -0.649077  -0.757073
109.86  -110.286  388.491  0.277584  0.855014  -0.438063
54.2559  -37.5503  424.491  -0.63685  -0.0903849  -0.765671
107.86  -109.444  388.491  0.244746  0.826175  -0.507478
54.3232  -38.5503  424.491  -0.693004  -0.0665413  -0.717856
108.86  -109.918  388.491  0.258737  0.867856  -0.424124
54.8599  -37.5503  424.061  -0.466633  0.0549984  -0.882739
108.86  -110.327  387.491  0.169278  0.853179  -0.493387
63.8599  60.4497  362.96  -0.0675509  -0.256387  -0.964211
64.8599  60.4497  362.906  0.0174731  -0.248277  -0.968532
63.8599  59.5991  363.491  -0.0585874  -0.70652  -0.705263
54.8599  -38.5503  423.97  -0.6391  0.0653314  -0.766344
64.8599  59.5396  363.491  0.00596891  -0.714814  -0.699289
123.86  -156.55  340.531  0.452569  0.539167  -0.710268
24.6843  -22.5503  393.491  0.923807  -0.010369  -0.382718
63.8599  62.2617  363.491  -0.099238  0.810474  -0.577307
64.8599  62.2266  363.491  0.14153  0.819469  -0.555373
22.8599  46.4497  375.092  0.393126  -0.162615  -0.904991
124.86  -156.55  340.965  0.348631  0.504316  -0.790014
63.8599  62.5654  364.491  -0.180108  0.928026  -0.326081
90.0327  14.4497  433.491  0.766803  0.174298  0.617765
64.8599  62.752  364.491  -0.0156591  0.869366  -0.493921
123.86  -155.55  341.154  0.359867  0.547256  -0.75565
6.85986  21.4497  355.515  -0.593073  -0.191234  -0.782108
64.8599  59.5039  365.491  -0.0356259  -0.995256  0.0905297
6.85986  24.4497  354.61  -0.538086  -0.204161  -0.817791
6.85986  23.4497  354.875  -0.54188  -0.220828  -0.810926
63.8599  59.5581  366.491  -0.0458511  -0.927318  -0.371456
6.85986  22.4497  355.155  -0.555269  -0.239869  -0.796329
63.8599  61.4497  362.997  -0.0766366  0.299603  -0.950981
64.8599  61.4497  362.978  0.00328284  0.311277  -0.950314
115.157  33.4497  387.491  0.898078  0.357577  0.256115
153.86  -192.55  339.44  0.561819  0.280664  -0.778195
134.86  -126.946  381.491  -0.168703  -0.718075  0.675209
155.86  -194.55  339.185  0.326575  0.515868  -0.791978
133.86  -126.616  381.491  -0.249725  -0.727183  0.639407
114.793  34.4497  387.491  0.927264  0.34678  0.141156
134.86  -125.55  382.858  0.0718409  -0.606515  0.791819
133.86  -125.707  382.491  -0.194655  -0.721866  0.664093
114.636  33.4497  388.491  0.823114  0.226966  0.520547
136.86  -122.726  380.491  0.0701519  0.717819  -0.692687
114.402  34.4497  388.491  0.832376  0.206642  0.514246
136.86  -123.55  379.803  -0.133215  0.572922  -0.808711
135.86  -123.55  379.958  -0.0367223  0.622669  -0.781623
135.86  -124.26  379.491  0.0541103  0.636227  -0.769602
113.833  31.4497  390.491  0.813876  0.20994  0.541785
135.86  -125.55  382.632  0.325778  -0.411609  0.851145
152.86  -166.55  351.21  0.475557  0.443192  -0.759886
136.86  -125.55  382.229  0.35237  -0.361525  0.863212
113.573  32.4497  390.491  0.831114  0.220662  0.510449
114.453  31.4497  389.491  0.794421  0.238722  0.558487
151.86  -165.55  351.188  0.450716  0.472869  -0.757132
136.86  -126.55  381.791  0.228286  -0.427302  0.874814
110.86  22.4497  355.202  0.460821  0.396387  -0.794054
135.86  -126.55  381.997  0.101109  -0.594009  0.79808
114.104  32.4497  389.491  0.807348  0.258759  0.530314
135.86  -127.105  381.491  -0.080507  -0.666856  0.740825
115.848  31.4497  387.491  0.848524  0.274683  0.452279
78.8599  -37.5503  414.839  0.60085  0.048939  -0.797863
106.86  -109.55  388.401  0.0496913  0.819225  -0.571315
105.86  -109.55  388.2  0.176316  0.816735  -0.549415
78.8599  -38.5503  414.746  0.566657  0.126424  -0.814197
106.86  -110.114  387.491  0.107932  0.799747  -0.590556
22.8599  34.4434  375.491  0.0480107  0.949039  -0.311481
77.8599  -37.5503  414.089  0.610132  0.00271426  -0.792296
77.8599  -38.5503  414.047  0.599763  0.0789661  -0.796272
52.4941  -37.5503  426.491  -0.924007  -0.238521  -0.298862
52.6279  -38.5503  426.491  -0.971343  -0.215572  -0.100108
22.8599  34.7339  376.491  0.197247  0.862356  -0.466301
21.6016  35.4497  375.491  0.878282  0.259922  -0.401325
21.5474  36.4497  375.491  0.895606  0.0220394  -0.444302
53.3223  -37.5503  425.491  -0.739675  -0.169268  -0.651329
53.4736  -38.5503  425.491  -0.757956  -0.132849  -0.638634
22.0232  35.4497  376.491  0.796736  0.324396  -0.50988
22.8599  35.4497  377.41  0.482867  0.345694  -0.804571
22.0112  36.4497  376.491  0.827677  -0.0317535  -0.560306
22.8599  36.4497  377.42  0.410023  -0.117888  -0.904424
105.86  -110.019  387.491  0.173216  0.829851  -0.530419
115.522  32.4497  387.491  0.880172  0.303702  0.364777
72.8599  59.4497  361.175  -0.586634  0.0487115  -0.808386
72.8599  60.4497  361.43  -0.303269  0.310667  -0.900841
54.8599  -37.5503  428.264  -0.156344  -0.162332  0.974272
53.8599  -37.5503  428.173  -0.184698  -0.121056  0.975311
54.8599  -38.5503  428.151  -0.135675  -0.232246  0.963148
71.8599  60.4497  361.988  -0.532999  -0.00131274  -0.846115
53.8599  -38.5503  427.976  -0.265356  -0.259483  0.928577
54.8599  -39.5503  427.887  -0.137064  -0.184457  0.973236
53.8599  -39.5503  427.58  -0.486166  -0.307833  0.817852
71.8599  61.4497  362.077  -0.372583  0.21051  -0.903807
72.8599  61.4497  361.795  -0.227059  0.333361  -0.915049
71.8599  62.4497  362.46  -0.290931  0.36625  -0.883866
72.8599  62.4497  362.24  -0.134501  0.451453  -0.882099
54.8599  -40.5503  427.787  -0.243705  -0.138508  0.959908
53.8599  -40.5503  427.15  -0.615435  -0.246797  0.748553
73.8599  61.4497  361.658  -0.0573821  0.447614  -0.892384
74.8599  61.4497  361.65  0.0862492  0.543864  -0.834729
73.8599  62.4497  362.149  0.0107854  0.48492  -0.874492
74.8599  62.4497  362.357  0.233428  0.601603  -0.763928
53.8882  -40.5503  425.491  -0.80107  -0.25784  -0.54019
52.9346  -39.5503  426.491  -0.943797  -0.330381  -0.00972272
53.2178  -40.5503  426.491  -0.933849  -0.350462  0.0714243
115.181  31.4497  388.491  0.807909  0.200225  0.55425
164.86  -189.55  348.36  0.570563  0.295323  -0.766317
114.927  32.4497  388.491  0.796185  0.249194  0.551354
53.6562  -39.5503  425.491  -0.779358  -0.175389  -0.601531
164.86  -190.55  347.819  0.541524  0.391355  -0.744038
40.8599  7.27979  360.491  -0.0423069  -0.837578  -0.544677
82.8599  -39.5503  417.237  0.254888  0.133723  -0.95768
39.8599  6.98047  361.491  -0.00501941  -0.99958  -0.0285324
81.8599  -39.5503  416.692  0.510196  0.181422  -0.840706
82.8599  -40.5503  417.049  0.377693  0.187896  -0.906666
40.8599  7.02881  361.491  0.0115849  -0.999595  0.025973
81.8599  -40.5503  416.45  0.534059  0.2331  -0.812678
61.8599  -13.7141  383.491  0.0924708  -0.964332  0.24802
82.8599  -37.5503  417.45  0.0826395  -0.0681197  -0.994249
162.86  -189.55  346.655  0.574037  0.0540247  -0.817046
81.8599  -37.5503  417.14  0.413943  0.0752097  -0.907191
39.8599  7.23975  362.491  0.0297033  -0.963871  0.264709
82.8599  -38.5503  417.398  0.172488  0.0611687  -0.98311
40.8599  7.29102  362.491  0.0338589  -0.964879  0.260505
81.8599  -38.5503  416.935  0.489854  0.164237  -0.856194
80.8599  -37.5503  416.424  0.604111  0.108721  -0.789449
115.184  33.4497  385.491  0.804539  0.578235  0.135503
161.86  -189.55  346.05  0.615057  0.0245212  -0.788101
79.8599  -37.5503  415.614  0.617151  0.0912917  -0.78153
162.86  -190.55  346.472  0.523933  0.16067  -0.836468
161.86  -190.55  345.846  0.606122  0.166707  -0.777705
80.8599  -38.5503  416.223  0.58438  0.160949  -0.795359
90.2739  13.4497  433.491  0.772504  0.181758  0.608443
48.8599  6.44971  381.886  -0.105238  -0.246184  -0.963493
73.8599  59.4497  360.729  -0.326703  0.309917  -0.89287
74.8599  59.4497  360.552  -0.112983  0.459897  -0.880755
73.8599  60.4497  361.191  -0.204804  0.379671  -0.902167
74.8599  60.4497  361.087  -0.0396426  0.461231  -0.886394
90.7798  14.4497  432.491  0.784875  0.199248  0.586747
90.8599  13.4497  432.693  0.759779  0.203473  0.617523
47.8599  6.44971  381.996  -0.10411  -0.247832  -0.963193
75.8599  59.4497  360.494  0.0459962  0.543954  -0.837853
76.8599  59.4497  360.66  0.237918  0.603115  -0.761346
75.8599  60.4497  361.149  0.147984  0.552974  -0.819952
121.86  -158.55  342.177  -0.385331  -0.585111  0.713558
122.86  -158.55  342.744  -0.39764  -0.591081  0.701788
79.8599  -38.5503  415.459  0.592323  0.138899  -0.793637
76.8599  60.4497  361.541  0.351426  0.613943  -0.706805
77.8599  59.4497  361.137  0.336957  0.642346  -0.688369
75.8599  61.4497  361.869  0.290793  0.606142  -0.740292
57.8599  -37.251  422.491  -0.652445  0.689862  -0.313698
75.8599  62.0894  362.491  0.357896  0.641468  -0.678549
57.9946  -37.5503  421.491  -0.767198  0.559187  -0.314192
76.8599  61.5171  362.491  0.358402  0.616893  -0.700707
59.8599  -41.4656  422.491  -0.34777  -0.717706  -0.603286
76.8599  62.4497  363.398  0.344218  0.643835  -0.683367
103.121  -2.55029  405.491  0.757203  -0.551068  -0.350669
121.86  -157.55  343.023  -0.388595  -0.601642  0.697868
77.8599  61.4497  362.868  0.350001  0.587775  -0.729396
60.8599  -41.468  421.491  -0.632663  -0.699891  -0.331497
59.8599  -41.1052  421.491  -0.288493  -0.938723  -0.188603
23.8599  35.4497  377.542  0.0129881  0.45904  -0.88832
61.6147  -42.5503  421.491  -0.878594  -0.373119  -0.298086
58.2324  -39.5503  420.491  -0.754474  -0.456323  -0.471739
23.8599  36.4497  377.611  0.0804218  -0.102294  -0.991498
59.0454  -40.5503  420.491  -0.654781  -0.667932  -0.353734
58.8286  -39.5503  419.491  -0.74187  -0.452569  -0.494784
24.8599  36.4497  377.56  -0.102291  -0.0643353  -0.992672
127.86  36.98  345.491  -0.466436  -0.699837  -0.540986
128.86  36.5449  345.491  -0.17043  -0.916186  -0.362708
127.86  36.6372  346.491  -0.273854  -0.882363  -0.382675
60.8599  -41.3445  420.491  -0.577485  -0.806527  0.126588
59.8599  -41.0557  420.491  -0.360828  -0.923936  -0.127065
128.86  36.5503  346.491  -0.09678  -0.977466  -0.187599
61.7227  -42.5503  420.491  -0.932555  -0.345331  0.105295
48.8599  5.44971  382.136  -0.110869  -0.255155  -0.960523
47.8599  5.44971  382.241  -0.109317  -0.264991  -0.958034
59.8599  -40.8926  419.491  -0.650669  -0.736349  -0.185527
163.86  -189.55  347.467  0.650447  0.149284  -0.744737
60.4683  -41.5503  419.491  -0.776778  -0.629295  -0.0245828
163.86  -190.55  347.12  0.568263  0.236582  -0.788103
61.2827  -42.5503  419.491  -0.920622  -0.361957  0.146431
77.8975  -81.5503  404.491  -0.902947  0.16631  -0.396267
114.253  34.4497  385.491  0.790231  0.612411  -0.0220963
78.2812  -81.5503  403.491  -0.929196  0.0964667  -0.356775
107.86  -110.55  387.27  0.11757  0.813441  -0.569641
78.2124  -82.5503  403.491  -0.901351  0.125777  -0.414422
104.86  -109.115  388.491  0.146964  0.841556  -0.519794
103.86  -108.983  388.491  0.168319  0.833793  -0.525792
104.86  -109.55  387.783  0.227111  0.841361  -0.490441
77.6699  -82.5503  404.491  -0.880611  0.201513  -0.428855
103.86  -109.521  387.491  0.255781  0.867667  -0.426299
115.125  33.4497  386.491  0.872798  0.487978  -0.0100493
58.8599  -41.1707  422.491  -0.288608  -0.756718  -0.586586
57.8599  -41.5503  423.098  -0.162278  -0.333459  -0.928693
114.533  34.4497  386.491  0.852947  0.486068  -0.190313
57.8599  -40.6807  422.491  -0.449272  -0.635772  -0.627653
58.8599  -42.5503  423.476  0.126382  -0.298838  -0.945898
78.8599  59.4497  361.645  0.339251  0.635985  -0.693132
57.8599  -42.5503  423.09  -0.0206604  0.0197587  -0.999591
58.8599  -40.8242  421.491  -0.438598  -0.847058  -0.300209
58.8599  -43.5503  423.179  0.390069  0.220825  -0.893914
77.8599  60.8164  362.491  0.336283  0.591126  -0.733133
78.8599  60.4497  362.535  0.353161  0.631187  -0.690565
84.8599  -78.5503  406.164  0.57893  0.259892  -0.772849
57.8599  -43.5503  423.05  -0.0803599  0.0417466  -0.995891
105.86  -110.55  386.587  0.271292  0.860087  -0.432031
27.8599  34.9727  376.491  -0.102746  0.85168  -0.513892
104.86  -110.31  386.491  0.264574  0.852466  -0.450891
58.8599  -44.5503  422.904  0.2008  0.217925  -0.955085
57.8599  -44.5503  423.075  -0.207984  0.0457699  -0.977061
54.5249  -39.5503  424.491  -0.72756  -0.157163  -0.6678
28.8599  35.1431  376.491  -0.180622  0.6832  -0.70754
79.8599  59.4497  362.121  0.332812  0.655788  -0.677627
54.7622  -40.5503  424.491  -0.705603  -0.188671  -0.683029
55.8599  -39.5503  423.009  -0.621177  -0.147294  -0.769703
80.8599  59.4497  362.615  0.345217  0.645381  -0.681402
56.8599  -40.5503  422.862  -0.397762  -0.41397  -0.818789
55.8599  -40.5503  423.415  -0.574499  -0.277629  -0.769982
56.8599  -39.5503  422.289  -0.609348  -0.250998  -0.752127
57.5923  -39.5503  421.491  -0.737161  -0.436504  -0.515808
77.8599  62.0791  363.491  0.356198  0.647529  -0.673668
55.0137  -41.5503  424.491  -0.710138  -0.136685  -0.690667
78.8599  61.4536  363.491  0.379614  0.620839  -0.685895
55.1577  -42.5503  424.491  -0.692386  -0.114886  -0.712323
78.8599  62.4497  364.45  0.369914  0.65342  -0.660459
91.71  14.4497  431.491  0.831042  0.1709  0.529303
55.8599  -41.5503  423.772  -0.560818  -0.172161  -0.809842
55.8599  -42.5503  423.919  -0.537033  -0.0818411  -0.839581
56.8599  -41.5503  423.282  -0.346543  -0.267265  -0.899154
103.86  -109.912  386.491  0.253277  0.85866  -0.445594
56.8599  -42.5503  423.412  -0.363323  -0.0636028  -0.92949
85.8599  -77.5503  407.218  0.558701  0.259299  -0.787793
55.8599  -43.5503  427.352  -0.284261  -0.23606  0.929232
85.8599  -78.5503  406.88  0.562864  0.261782  -0.783998
56.8599  -44.5503  427.38  -0.276651  -0.144562  0.950035
82.8599  -75.5503  405.659  0.616667  0.269265  -0.739742
152.86  -165.55  351.818  0.463005  0.430941  -0.774543
55.8599  -44.5503  427.135  -0.279855  -0.190961  0.940859
153.86  -166.55  351.895  0.434664  0.447096  -0.781775
101.86  -124.995  361.491  0.311109  0.828509  -0.4656
101.86  -109.524  386.491  0.131606  0.814387  -0.565202
102.86  -125.495  361.491  0.328494  0.825206  -0.459486
55.8599  -43.5503  424.014  -0.610963  -0.116842  -0.78299
55.8599  -44.5503  424.231  -0.684384  -0.141021  -0.715354
102.86  -109.664  386.491  0.207032  0.833993  -0.511462
56.8599  -43.5503  423.404  -0.419228  -0.0284716  -0.907435
45.8599  8.44971  359.149  -0.104002  -0.297691  -0.948981
56.8599  -44.5503  423.473  -0.465686  -0.0648688  -0.882569
102.86  -110.337  385.491  0.14567  0.826768  -0.543356
101.86  -110.194  385.491  0.178853  0.853487  -0.48946
100.86  -109.369  386.491  0.177442  0.842268  -0.509018
99.8599  -109.202  386.491  0.253059  0.847164  -0.467198
46.8599  8.44971  359.079  -0.0740472  -0.285783  -0.955429
102.86  -124.917  362.491  0.203595  0.801617  -0.562102
100.86  -109.998  385.491  0.221439  0.868768  -0.442953
99.8599  -109.629  385.491  0.269208  0.872259  -0.408279
120.86  -123.156  373.491  0.301396  0.785695  -0.540226
119.86  -122.597  373.491  0.36493  0.786424  -0.498362
47.8599  4.44971  382.549  -0.112792  -0.284732  -0.951948
153.86  -165.55  352.359  0.493303  0.43134  -0.755379
155.114  -166.55  352.491  0.537916  0.46894  -0.70053
159.86  -150.55  366.938  -0.0763725  0.313679  0.946453
48.8599  3.44971  382.722  -0.118341  -0.27389  -0.954453
47.8599  3.44971  382.847  -0.10744  -0.270499  -0.956706
48.8599  4.44971  382.43  -0.119281  -0.281474  -0.952126
86.8599  -122.946  402.491  -0.131836  -0.885198  0.446143
81.8599  55.4497  359.356  0.354505  0.630498  -0.690506
85.8599  -122.81  402.491  -0.104103  -0.875417  0.472025
80.8599  56.1685  359.491  0.328691  0.640256  -0.694287
62.8599  -13.6455  383.491  0.0356877  -0.980245  0.194542
61.8599  -13.7566  384.491  0.0192153  -0.914126  -0.404975
61.8599  -14.5503  385.231  0.0245348  -0.751604  -0.659158
28.8599  -5.55029  386.968  -0.0748941  -0.219714  -0.972685
86.8599  -123.469  401.491  -0.101878  -0.863725  0.493559
151.044  -164.55  351.491  0.437934  0.473322  -0.764317
82.8599  55.4497  359.886  0.354596  0.633547  -0.687663
99.8599  -128.129  363.491  -0.244058  -0.792915  0.558321
85.8599  -123.382  401.491  -0.0125852  -0.838925  0.544101
100.86  -128.417  363.491  -0.241511  -0.798702  0.551133
81.8599  56.6313  360.491  0.349095  0.64948  -0.675507
82.8599  56.4497  360.801  0.350447  0.641472  -0.682423
100.86  -127.752  364.491  -0.247601  -0.795671  0.552812
10.8599  46.4497  346.877  0.189652  0.235817  -0.953112
83.8599  55.5454  360.491  0.352606  0.63856  -0.684039
84.8599  55.4497  360.91  0.344783  0.64641  -0.680646
9.85986  46.4497  346.79  -0.104188  0.229626  -0.967686
10.8599  45.4497  346.676  0.269753  0.0560569  -0.961296
9.85986  45.4497  346.6  -0.114294  0.10486  -0.987897
79.8599  60.7544  363.491  0.361694  0.61934  -0.696846
80.8599  60.4497  363.58  0.321454  0.666935  -0.672208
80.8599  61.3687  364.491  0.370222  0.621944  -0.690015
27.8599  -5.55029  387.072  -0.0825603  -0.210193  -0.974168
79.8599  61.4497  363.979  0.393519  0.555041  -0.732852
77.0654  -77.5503  406.491  -0.809995  -0.0224764  -0.586006
79.8599  62.0596  364.491  0.342043  0.684401  -0.643895
77.0903  -78.5503  406.491  -0.807253  0.00756219  -0.590158
79.8599  62.4497  365.046  0.322629  0.715427  -0.619737
81.8599  61.4497  365.083  0.334597  0.652184  -0.680221
62.8599  -13.7544  384.491  0.0102635  -0.904858  -0.425589
77.6963  -77.5503  405.491  -0.859775  -0.0181844  -0.510348
163.86  -166.55  359.107  0.578772  0.387382  -0.717606
150.12  -163.55  351.491  0.492806  0.452576  -0.74318
77.7041  -78.5503  405.491  -0.870938  0.0032419  -0.491381
28.8599  -6.55029  387.2  -0.0681646  -0.210647  -0.975183
45.7163  -13.5503  424.491  0.713868  0.210951  0.667751
150.86  -163.55  351.792  0.392611  0.421783  -0.817285
56.8599  -13.5916  396.491  0.0267861  -0.965103  0.260498
8.85986  46.4497  347.079  -0.338606  0.191665  -0.921201
55.8599  -13.6272  396.491  0.0432556  -0.966216  0.254078
8.85986  45.4497  346.935  -0.365717  0.102396  -0.925076
56.8599  -13.8459  395.491  0.0243997  -0.972205  0.232855
7.85986  45.4497  347.395  -0.405446  0.0880454  -0.909869
82.8599  61.4033  365.491  0.325241  0.648104  -0.688607
55.8599  -13.876  395.491  0.0317494  -0.974329  0.222881
44.7004  -9.55029  424.491  0.768186  0.162513  0.619257
44.9219  -10.5503  424.491  0.753895  0.203906  0.624551
45.5586  -9.55029  423.491  0.786292  0.203855  0.583257
82.8599  62.4497  366.478  0.310701  0.650963  -0.692612
81.8599  62.917  366.491  0.336515  0.638091  -0.69253
45.2402  -11.5503  424.491  0.745345  0.227474  0.626671
45.5596  -12.5503  424.491  0.743562  0.193563  0.640038
164.86  -167.55  359.085  0.422331  0.417408  -0.804616
60.8599  -45.5503  423.87  -0.193127  0.487087  -0.851732
47.8599  7.44971  359.453  -0.0682839  -0.670878  -0.738418
164.86  -168.55  358.586  0.547724  0.419957  -0.723626
58.8599  -45.5503  422.755  -0.0193214  0.0317724  -0.999308
57.8599  -45.5503  423.063  -0.35722  -0.00704802  -0.933994
48.8599  7.44971  359.356  -0.0522359  -0.723727  -0.688106
58.8599  -46.5503  422.831  -0.0633976  -0.0198823  -0.99779
57.8599  -46.5503  423.104  -0.385279  -0.0618226  -0.920727
57.8599  -46.5503  427.402  -0.264469  -0.202309  0.942936
47.8599  8.44971  358.996  -0.08995  -0.271322  -0.958276
56.8599  -45.5503  427.332  -0.299823  -0.100559  0.94868
85.8599  55.4497  361.42  0.327456  0.647076  -0.688523
55.8599  -45.5503  426.941  -0.39318  -0.175158  0.902623
56.8599  -46.5503  427.227  -0.273489  -0.166356  0.94738
83.8599  56.6104  361.491  0.353979  0.638629  -0.683265
84.8599  56.4497  361.847  0.347831  0.639923  -0.68521
84.8599  57.1445  362.491  0.347699  0.641627  -0.683681
55.8599  -46.5503  426.814  -0.614928  -0.237696  0.751907
81.8599  59.8159  363.491  0.350342  0.648913  -0.675405
82.8599  59.4497  363.663  0.352294  0.641463  -0.68148
55.9873  -46.5503  424.491  -0.760133  -0.151938  -0.631753
82.8599  60.3301  364.491  0.343825  0.645284  -0.682197
56.8599  -45.5503  423.551  -0.574467  -0.0904918  -0.81351
81.8599  60.8389  364.491  0.336984  0.655208  -0.676125
56.8599  -46.5503  423.65  -0.599115  -0.0888217  -0.795721
83.8599  59.4497  364.172  0.337903  0.642757  -0.687521
56.8599  -47.5503  427.001  -0.295152  -0.263187  0.918487
56.0864  -47.5503  426.491  -0.692529  -0.310959  0.650928
84.8599  59.4497  364.663  0.331099  0.636652  -0.696454
83.8599  60.4497  365.121  0.331626  0.640934  -0.692263
80.8599  62.4419  365.491  0.351199  0.660927  -0.663201
56.8599  -48.5503  426.702  -0.407119  -0.285881  0.867483
55.8599  -48.5503  425.66  -0.882558  -0.281358  0.376736
57.8599  -47.5503  427.118  -0.254697  -0.243762  0.935794
48.8599  8.44971  358.906  -0.0887381  -0.305787  -0.947956
58.8599  -48.5503  427.24  -0.356434  -0.261143  0.897084
57.8599  -48.5503  426.953  -0.255204  -0.188423  0.94835
56.1475  -47.5503  424.491  -0.787591  -0.144088  -0.599115
55.8599  -48.5503  425.192  -0.935472  -0.1728  -0.308274
29.8599  36.4497  376.816  -0.126387  0.0640485  -0.989911
30.8599  36.4497  376.743  -0.0594828  0.0615138  -0.996332
56.3408  -48.5503  424.491  -0.78354  -0.165441  -0.598911
56.8599  -47.5503  423.768  -0.595136  -0.0991219  -0.797489
56.8599  -48.5503  423.923  -0.647995  -0.116186  -0.75273
84.8599  60.4497  365.565  0.313827  0.637828  -0.703341
85.8599  59.4497  365.105  0.290595  0.620954  -0.727991
86.8599  59.4497  365.487  0.195303  0.580623  -0.790401
83.8599  61.4497  366.02  0.321112  0.636455  -0.701293
12.8599  -15.2551  364.491  0.244046  -0.728114  -0.64054
11.8599  -15.2524  364.491  -0.126988  -0.809868  -0.572702
12.8599  -16.5066  366.491  0.00804862  -0.929703  -0.368221
84.8599  61.4824  366.491  0.270024  0.620716  -0.736069
83.8599  62.4497  366.919  0.290283  0.641655  -0.70994
84.8599  62.4497  367.281  0.182618  0.646502  -0.740733
86.8599  55.0405  361.491  0.331995  0.650165  -0.683421
11.8599  -16.2812  366.491  -0.180539  -0.915498  -0.35954
12.8599  -16.0044  365.491  0.0779233  -0.860679  -0.50315
11.8599  -15.8601  365.491  -0.174272  -0.883644  -0.434514
85.8599  56.4497  362.355  0.32791  0.644796  -0.690444
10.8599  -16.0757  366.491  -0.205242  -0.905765  -0.370764
9.85986  -15.8264  366.491  -0.235921  -0.886351  -0.3984
9.85986  -15.3125  365.491  -0.255011  -0.840182  -0.478606
86.8599  56.4497  362.796  0.334975  0.642277  -0.689399
10.8599  -15.6169  365.491  -0.22419  -0.861782  -0.455051
163.88  -168.55  357.491  0.701007  0.471609  -0.534952
87.8599  55.5454  362.491  0.319511  0.647604  -0.691752
88.8599  55.4497  362.818  0.304801  0.646998  -0.698921
166.86  -167.55  359.441  -0.286691  0.0685031  -0.955571
31.8599  35.4497  376.458  -0.0645432  0.461107  -0.884994
32.8599  35.4497  376.393  -0.041061  0.518154  -0.854301
41.8599  7.23047  360.491  -0.0436932  -0.871452  -0.488531
166.86  -168.55  359.365  -0.0513337  0.209978  -0.976358
45.9453  -29.5503  421.491  -0.747418  -0.189579  -0.636731
31.8599  36.4497  376.677  -0.0874114  -0.0193712  -0.995984
45.8599  -30.5503  421.887  -0.616036  -0.427011  -0.661938
46.8599  -31.4619  422.491  0.0513983  -0.923754  -0.379522
32.8599  36.4497  376.547  -0.0954013  -0.0622918  -0.993488
45.8599  -31.2366  422.491  -0.423779  -0.693249  -0.582938
46.8599  -30.8818  421.491  -0.270007  -0.753856  -0.598997
46.561  -31.5503  428.491  0.838918  0.0796321  0.538401
85.8599  60.4497  366  0.14596  0.493834  -0.857218
86.8599  60.4497  366.235  0.0432832  0.324787  -0.944796
46.4976  -32.5503  428.491  0.866535  -0.269521  0.42009
87.8506  61.4497  365.491  -0.262866  0.151375  -0.952884
86.8599  61.4497  366.108  -0.342501  -0.0315425  -0.938988
86.8599  62.4497  365.923  -0.589451  0.226092  -0.775519
47.2046  -31.5503  427.491  0.879103  -0.180866  0.440982
85.8599  61.4497  366.729  -0.341686  0.477011  -0.80976
86.5029  62.4497  366.491  -0.775334  0.369218  -0.512381
85.8599  62.4497  367.426  -0.524721  0.542334  -0.656157
86.8599  63.2114  366.491  -0.568282  0.539884  -0.620952
46.9116  -32.5503  427.491  0.835068  -0.505017  0.21822
89.8599  55.4497  363.247  0.199964  0.556761  -0.806245
90.8599  55.4497  363.464  -0.00202356  0.272063  -0.962277
91.8457  13.4497  431.491  0.839  0.144749  0.524525
47.8599  -31.8889  425.491  0.627298  -0.759418  0.172573
87.8599  56.625  363.491  0.317107  0.629415  -0.709422
88.8599  56.4497  363.717  0.212394  0.584905  -0.782799
165.86  -168.55  359.098  0.291658  0.328993  -0.898165
42.5127  -31.5503  426.491  -0.74875  -0.173079  -0.639857
42.8599  7.18604  360.491  -0.0413989  -0.926135  -0.374912
150.888  -195.55  335.491  0.440969  0.524911  -0.728021
42.8599  -32.5503  426.509  -0.62201  -0.485365  -0.61443
41.8599  7.02344  361.491  -0.0105024  -0.998185  0.0593057
91.8599  55.4497  363.485  0.164106  0.0487448  -0.985238
91.8599  56.4497  363.214  -0.198366  0.000463372  -0.980128
92.8599  56.4497  363.122  0.149217  -0.0932464  -0.984398
43.3262  -31.5503  425.491  -0.750939  -0.250512  -0.611011
43.7346  -29.5503  424.491  -0.797735  -0.121558  -0.590628
89.8599  56.4497  363.984  -0.101748  0.328407  -0.93904
45.1106  -29.5503  422.491  -0.797768  -0.127789  -0.589268
90.8599  56.4497  363.773  -0.187738  0.195172  -0.962633
42.8599  7.00439  361.491  -0.00570936  -0.996116  0.0878629
41.8599  7.33887  362.491  0.00423827  -0.963257  0.268548
148.86  -195.55  334.286  0.464643  0.515374  -0.720067
33.8599  35.4497  376.343  -0.018217  0.527891  -0.849117
34.8599  35.4497  376.315  -0.0392268  0.436937  -0.898636
33.8599  36.4497  376.491  -0.043503  -0.0878371  -0.995184
45.3096  -30.5503  422.491  -0.719236  -0.350466  -0.599894
47.7935  -31.5503  426.491  0.799785  -0.484427  0.354506
46.8599  -32.4082  425.491  0.387667  -0.906055  -0.169643
43.8689  -30.5503  424.491  -0.804845  -0.145641  -0.575338
34.8599  36.4497  376.544  -0.0560618  -0.115252  -0.991753
147.86  -195.55  333.6  0.444926  0.528481  -0.723014
151.86  -164.55  351.777  0.403772  0.43943  -0.802415
44.4319  -29.5503  423.491  -0.818533  -0.100224  -0.565649
42.8599  7.30908  362.491  -0.00199507  -0.962906  0.269831
44.5378  -30.5503  423.491  -0.769302  -0.24572  -0.589742
99.8599  -127.414  364.491  -0.264009  -0.783516  0.562496
46.8599  -32.0571  424.491  0.247978  -0.925049  -0.287735
45.8599  -32.2893  424.491  0.121688  -0.936975  -0.327521
43.8599  7.12744  360.491  -0.0970631  -0.883131  -0.458976
46.8599  -31.7861  423.491  0.165376  -0.930178  -0.327749
149.86  -195.55  334.896  0.450796  0.470965  -0.758271
45.8599  -31.9111  423.491  -0.0616337  -0.880516  -0.469993
150.86  -196.55  334.948  0.455735  0.414582  -0.787672
44.8599  7.01758  360.491  -0.0678733  -0.976931  -0.202483
43.8599  7.05273  361.491  -0.00956365  -0.993276  0.115372
149.86  -196.55  334.422  0.482895  0.375306  -0.791175
89.7324  59.4497  364.491  -0.199922  0.363716  -0.909803
88.8599  59.4497  365.171  -0.414561  0.176112  -0.892818
88.8599  60.4497  364.941  -0.34614  0.12544  -0.929759
44.115  -31.5503  424.491  -0.716445  -0.364707  -0.594723
44.8599  -32.2952  424.491  -0.228163  -0.831562  -0.506405
44.8599  -31.5503  423.541  -0.568699  -0.548784  -0.612713
49.8599  83.4497  410.704  -0.363609  -0.237605  -0.90074
50.8599  84.4497  410.058  -0.335803  -0.218647  -0.916204
49.8599  84.4497  410.413  -0.35927  -0.241246  -0.901513
87.8599  60.4497  365.87  -0.522796  -0.0365877  -0.851672
50.8599  83.4497  410.289  -0.3416  -0.237033  -0.909464
35.3914  -33.5503  424.491  0.932452  -0.0534131  -0.357324
88.8599  61.6006  365.491  -0.0237758  0.486443  -0.873388
87.8599  62.4497  365.628  -0.12745  0.370937  -0.919871
88.8599  62.4497  365.944  0.210508  0.521895  -0.826627
87.8599  63.417  366.491  0.09809  0.726409  -0.680227
88.8599  63.0913  366.491  0.285231  0.746633  -0.600984
35.8599  35.4497  376.215  -0.108536  0.471435  -0.875196
36.8599  35.4497  376.093  -0.149659  0.548198  -0.822849
35.8599  36.4497  376.384  -0.136143  -0.14657  -0.979787
36.8599  36.4497  376.202  -0.141009  -0.105476  -0.984374
170.86  -181.55  355.846  0.463708  0.337297  -0.819271
35.342  -34.5503  424.491  0.938202  0.0297169  -0.34481
44.8599  7.04785  361.491  -0.00853619  -0.986418  0.16403
170.316  -181.55  355.491  0.750416  0.384436  -0.537666
34.9705  -33.5503  423.491  0.927621  -0.0596207  -0.368735
43.8599  7.29248  362.491  0.0131696  -0.963788  0.266345
34.9922  -34.5503  423.491  0.94381  0.0501837  -0.326657
44.8599  7.34912  362.491  0.0314777  -0.956594  0.289719
34.6123  -33.5503  422.491  0.949843  0.0296157  -0.311321
7.85986  46.4497  347.508  -0.38935  0.177008  -0.903922
34.7114  -34.5503  422.491  0.948013  0.0444125  -0.315118
45.8599  6.95752  360.491  -0.0297854  -0.975529  -0.217844
34.2996  -33.5503  421.491  0.948516  0.00666158  -0.31666
46.8599  6.97021  360.491  -0.0138106  -0.975372  -0.220135
34.3735  -34.5503  421.491  0.941009  0.0190825  -0.337844
40.8599  -34.8879  430.491  -0.239797  -0.757181  -0.607598
92.8599  55.4497  363.792  0.280739  -0.122513  -0.951933
93.9429  -70.5503  414.491  0.786736  0.274104  -0.553095
93.4961  -69.5503  414.491  0.834363  0.308222  -0.456988
89.8599  61.4497  365.58  0.283103  0.60584  -0.743512
92.8599  -69.5503  414.042  0.418793  0.153006  -0.895098
89.8599  62.4497  366.422  0.400187  0.636336  -0.65949
91.8599  -69.5503  413.791  0.28788  0.155947  -0.944884
90.8599  61.8506  366.491  0.470545  0.643448  -0.60379
92.8599  -70.5503  413.827  0.386197  0.160806  -0.908292
91.8599  -70.5503  413.588  0.338897  0.204825  -0.918257
121.86  -156.55  339.115  0.328477  0.523027  -0.786477
